0.731526, 0.659068, -0.174640
0.633910, 0.359262, -0.684901
-0.005821, 0.551214, 0.834344
-0.284045, -0.538801, -0.793102
-0.870902, -0.465456, 0.157736
0.254454, 0.958840, 0.126014
-0.294338, -0.846102, -0.444383
-0.277570, -0.257357, -0.925593
-0.492558, -0.858583, -0.142204
0.598455, -0.038846, 0.800214
-0.570292, 0.407824, 0.713055
-0.595797, 0.380370, -0.707351
-0.365759, 0.253920, 0.895402
0.251464, -0.399667, -0.881494
-0.044648, -0.734671, -0.676953
-0.574943, -0.231589, -0.784733
0.870092, -0.033633, 0.491740
0.659297, 0.272734, 0.700674
0.566279, 0.710147, 0.418354
-0.034662, -0.282316, 0.958695
0.399655, -0.895752, 0.194692
0.238836, 0.065371, -0.968857
0.353627, 0.313732, 0.881204
-0.102946, 0.981390, -0.162101
0.339709, 0.618485, 0.708572
0.053149, 0.252255, 0.966200
-0.542082, 0.840256, -0.010806
-0.542871, 0.686512, 0.483728
0.236408, 0.841471, 0.485837
0.831149, 0.082607, -0.549879
-0.460374, -0.217049, 0.860782
0.489250, 0.787366, -0.375085
0.752553, -0.189368, -0.630717
0.547007, -0.717471, 0.431299
0.787728, -0.521823, 0.327392
0.153175, 0.674589, -0.722127
-0.229106, -0.532075, 0.815111
-0.856811, 0.138934, 0.496561
-0.183336, -0.007489, 0.983022
0.630483, -0.773353, -0.066459
-0.958858, 0.051680, -0.279141
-0.860873, -0.415027, -0.294364
-0.440270, -0.836908, 0.325188
0.256092, -0.687900, -0.679125
-0.652818, 0.000968, 0.757514
0.512222, -0.753789, -0.411620
0.039710, -0.946672, 0.319744
0.720937, -0.316783, 0.616359
0.951755, 0.305591, -0.027860
-0.266957, 0.631802, -0.727709
-0.767589, 0.600289, -0.224631
-0.690913, -0.672590, -0.265070
-0.139150, 0.047723, -0.989121
-0.761358, 0.116598, -0.637761
-0.034395, 0.854711, -0.517963
0.248059, 0.380937, -0.890704
-0.788002, 0.454809, 0.414973
0.222655, 0.938593, -0.263566
-0.010315, -0.995246, -0.096849
-0.960537, 0.259608, 0.099861
0.453705, 0.615425, -0.644518
0.850539, 0.400120, -0.341302
-0.445342, 0.161469, -0.880681
-0.416816, -0.678596, 0.604790
-0.102491, 0.425613, -0.899082
-0.974542, -0.210135, -0.078174
-0.587020, 0.634988, -0.502193
0.529210, 0.842496, 0.100685
0.110152, -0.915649, -0.386593
-0.412733, 0.863540, 0.289741
-0.795333, 0.592684, 0.127164
-0.251446, 0.689442, 0.679297
-0.878144, 0.341129, -0.335402
-0.064291, -0.782866, 0.618860
0.925619, -0.288227, -0.245265
-0.093962, 0.981509, 0.166766
0.778011, 0.417873, 0.469128
-0.380767, 0.857408, -0.346221
0.804217, 0.579130, 0.133577
0.959937, -0.220200, 0.173298
-0.823651, -0.255032, 0.506515
0.047780, -0.257788, -0.965019
0.539256, -0.425044, -0.727008
0.853077, -0.521705, -0.009119
-0.653325, -0.474121, 0.590234
-0.974514, -0.044117, 0.219945
0.317504, -0.940982, -0.117239
-0.552418, -0.580644, -0.598069
0.947269, 0.174372, 0.268842
0.979233, 0.021188, -0.201628
0.304989, -0.027263, 0.951966
0.253230, -0.768227, 0.587965
-0.098615, 0.876560, 0.471081
0.465596, -0.507925, 0.724729
0.536361, 0.042143, -0.842936
-0.695709, -0.702291, 0.150915
-0.805258, -0.222699, -0.549513
0.222932, -0.424198, 0.877700
-0.256571, -0.962780, 0.085004
0.755344, -0.521657, -0.396649
